# .PCD v0.7 - Point Cloud Data file format
VERSION 0.7
FIELDS x y z rgb
SIZE 4 4 4 4
TYPE F F F U
COUNT 1 1 1 1
WIDTH 1135
HEIGHT 1
VIEWPOINT 0 0 0 1 0 0 0
POINTS 1135
DATA ascii
1393.4331 -284.00253 745.04797 4278190080
2030.7211 -397.26111 1069.6284 4278190080
3248.0527 -613.29712 1685.1896 4278190080
3238.9819 -609.85553 1655.3418 4278190080
3247.3135 -609.54266 1634.5486 4278190080
3251.9719 -608.60406 1611.9613 4278190080
3251.1497 -606.72687 1586.7799 4278190080
3249.2507 -604.69318 1561.2417 4278190080
3247.1614 -602.65955 1535.7867 4278190080
3245.7781 -600.78235 1510.8331 4278190080
3245.1089 -599.06152 1486.3657 4278190080
3241.5608 -596.87146 1460.7465 4278190080
3239.6267 -594.99426 1436.0273 4278190080
3240.228 -593.58636 1412.5709 4278190080
3247.9265 -593.42993 1392.2736 4278190080
3253.6777 -592.96063 1371.1681 4278190080
3251.9917 -591.23981 1347.0215 4278190080
3245.5581 -588.73688 1321.0861 4278190080
3246.2661 -587.48541 1298.2136 4278190080
3245.8965 -586.07751 1275.0214 4278190080
3242.6003 -584.20026 1250.8165 4278190080
3236.3586 -581.85376 1225.6512 4278190080
3238.2629 -580.91516 1203.7061 4278190080
3239.0923 -579.82013 1181.4454 4278190080
3236.0508 -578.09937 1157.8894 4278190080
3231.9104 -576.22211 1134.0885 4278190080
3227.6001 -574.34491 1110.3821 4278190080
3229.6729 -573.56274 1088.9796 4278190080
3229.7288 -572.46771 1066.9742 4278190080
3232.4558 -571.84198 1045.921 4278190080
3225.6301 -569.65186 1021.8928 4278190080
5359.2373 -922.41162 1661.4476 4278190080
5450.6177 -935.86493 1653.181 4278190080
5519.3682 -945.5639 1637.1152 4278190080
5611.8408 -959.17371 1627.1421 4278190080
5721.5015 -975.5993 1620.9398 4278190080
5867.4668 -997.96942 1623.4584 4278190080
5983.1602 -1015.3337 1616.0059 4278190080
6071.2812 -1028.1613 1599.8966 4278190080
6298.1377 -1063.6719 1618.401 4278190080
6738.1431 -1133.911 1687.434 4278190080
6767.5615 -1137.0397 1650.7377 4278190080
6780.4458 -1137.509 1609.866 4278190080
6778.6475 -1135.6317 1565.5652 4278190080
6776.5615 -1133.7545 1521.347 4278190080
2876.4636 -500.03854 627.48358 4278190080
2874.4619 -499.09995 608.59534 4278190080
2874.272 -498.47418 590.15247 4278190080
2868.1516 -496.90985 570.57928 4278190080
2870.6287 -496.75342 552.78326 4278190080
2869.1113 -495.97125 534.25562 4278190080
2868.447 -495.34549 515.94214 4278190080
2869.6125 -495.03262 497.99448 4278190080
2865.7947 -493.93759 479.23807 4278190080
2865.7559 -493.46829 461.17447 4278190080
2857.7944 -491.7475 441.92294 4278190080
2857.5212 -491.2782 423.94507 4278190080
2856.1572 -490.65247 405.84839 4278190080
2855.6575 -490.18317 387.91724 4278190080
2855.0454 -489.71387 370.00754 4278190080
2855.3015 -489.401 352.24075 4278190080
2853.4851 -488.77527 334.25519 4278190080
2850.5737 -487.99307 316.19644 4278190080
2852.4604 -487.99307 298.69971 4278190080
2856.2053 -488.30594 281.38513 4278190080
2861.8123 -488.9317 264.21716 4278190080
2857.4751 -487.99307 246.14464 4278190080
2855.978 -487.52377 228.37108 4278190080
2854.3704 -487.05447 210.62518 4278190080
2855.6091 -487.05447 193.10713 4278190080
2856.7402 -487.05447 175.5818 4278190080
2857.7637 -487.05447 158.04987 4278190080
2858.6797 -487.05447 140.51198 4278190080
2856.5278 -486.58517 122.8419 4278190080
2852.2927 -485.80301 105.13103 4278190080
2847.9478 -485.02084 87.476768 4278190080
2844.4814 -484.39508 69.903915 4278190080
2839.9192 -483.61292 52.358829 4278190080
2837.2241 -483.14362 34.896389 4278190080
2836.3972 -482.98718 17.480902 4278190080
2836.4512 -482.98718 0.076766193 4278190080
2835.4104 -482.83075 -17.321203 4278190080
2835.2507 -482.83075 -34.718628 4278190080
2834.9844 -482.83075 -52.114746 4278190080
2835.5986 -482.98718 -69.533249 4278190080
2833.1443 -482.67432 -86.870041 4278190080
2833.5449 -482.83075 -104.28871 4278190080
2837.7854 -483.61292 -121.88564 4278190080
2840.9302 -484.23865 -139.48996 4278190080
2840.0208 -484.23865 -156.91895 4278190080
2830.1321 -482.83075 -173.79597 4278190080
2829.9978 -482.98718 -191.22479 4278190080
2825.8162 -482.51788 -208.36743 4278190080
2825.469 -482.67432 -225.78119 4278190080
2825.0144 -482.83075 -243.19855 4278190080
2826.4197 -483.30005 -260.8006 4278190080
2825.749 -483.45648 -278.23517 4278190080
2826.9355 -483.92578 -295.87726 4278190080
2826.0486 -484.08221 -313.32642 4278190080
2825.0537 -484.23865 -330.77582 4278190080
2821.9907 -484.08221 -347.98279 4278190080
2814.905 -483.30005 -364.65652 4278190080
2810.6572 -482.98718 -381.65552 4278190080
2816.0852 -484.23865 -400.00647 4278190080
2819.4397 -485.17728 -418.14832 4278190080
2817.7971 -485.33371 -435.59122 4278190080
2816.0464 -485.49014 -453.02969 4278190080
2813.2136 -485.49014 -470.30011 4278190080
2811.248 -485.64658 -487.72177 4278190080
2806.2585 -485.33371 -504.61221 4278190080
2788.5447 -482.98718 -519.10822 4278190080
2781.4275 -482.36145 -535.46124 4278190080
6306.0557 -1052.0958 -1254.6738 4278190080
6313.7183 -1054.5988 -1296.5232 4278190080
6304.6777 -1054.4423 -1335.0343 4278190080
6305.0522 -1055.8502 -1375.5894 4278190080
6305.166 -1057.2581 -1416.1991 4278190080
6302.1318 -1058.1967 -1456.1947 4278190080
6303.6484 -1059.9175 -1497.3479 4278190080
6299.1396 -1060.6997 -1537.1693 4278190080
6297.2539 -1061.9512 -1577.7119 4278190080
6294.1504 -1063.0461 -1618.0431 4278190080
6291.7441 -1064.2976 -1658.6476 4278190080
6291.937 -1066.0184 -1700.0563 4278190080
6290.9058 -1067.5828 -1741.2662 4278190080
6285.8047 -1068.5214 -1781.45 4278190080
6286.1953 -1072.2758 -1865.1965 4278190080
6287.8638 -1074.4659 -1907.7482 4278190080
6282.6431 -1075.5609 -1948.342 4278190080
6285.6348 -1078.0638 -1991.6293 4278190080
6291.1499 -1081.0361 -2035.9387 4278190080
6289.793 -1082.9133 -2078.2212 4278190080
6280.6665 -1083.5391 -2118.0383 4278190080
6275.9575 -1084.947 -2159.4285 4278190080
6244.8823 -1081.9747 -2191.6809 4278190080
5757.9897 -1002.3496 -2060.54 4278190080
5642.2461 -984.98535 -2058.2534 4278190080
5543.415 -970.43695 -2060.8215 4278190080
5417.9829 -951.35199 -2052.1082 4278190080
5318.6714 -936.64716 -2051.8906 4278190080
5220.4893 -922.09869 -2050.894 4278190080
5173.8765 -916.31067 -2069.3145 4278190080
3150.4253 -572.46771 -1282.3423 4278190080
3139.7603 -571.99841 -1300.5146 4278190080
3134.4519 -572.46771 -1320.9062 4278190080
3134.4578 -573.87561 -1343.6172 4278190080
3139.7346 -576.22211 -1368.7467 4278190080
3142.1121 -578.09937 -1392.7902 4278190080
3139.8098 -579.1944 -1414.8848 4278190080
3139.1506 -580.60229 -1437.8262 4278190080
3142.8047 -582.79236 -1462.8972 4278190080
3146.2688 -584.98242 -1488.067 4278190080
3145.0906 -586.39038 -1511.1949 4278190080
3140.1968 -587.17255 -1532.631 4278190080
3137.8127 -588.42401 -1555.38 4278190080
3138.7961 -590.30121 -1579.9341 4278190080
3137.8372 -591.86554 -1603.6593 4278190080
3137.5815 -593.58636 -1627.8872 4278190080
3135.3987 -594.99426 -1651.2513 4278190080
3128.6917 -595.62 -1672.3215 4278190080
3126.1848 -597.02789 -1695.7266 4278190080
3126.9692 -599.06152 -1721.069 4278190080
3123.2485 -600.31305 -1744.0764 4278190080
3116.7849 -601.09521 -1765.6421 4278190080
3122.1624 -604.06744 -1794.0846 4278190080
1876.3969 -377.70679 -1093.4238 4278190080
1873.0532 -378.33252 -1106.9272 4278190080
1864.5317 -378.01965 -1117.3835 4278190080
1853.4207 -377.23749 -1126.2378 4278190080
1844.7936 -376.92462 -1136.5525 4278190080
1862.705 -385.68494 -1211.651 4278190080
1865.9542 -387.7186 -1230.1266 4278190080
1882.1852 -392.25519 -1257.4685 4278190080
1876.0697 -392.56805 -1270.1013 4278190080
1868.2411 -392.56805 -1281.5887 4278190080
1880.6156 -396.47891 -1307.124 4278190080
1891.9388 -400.23334 -1332.29 4278190080
1895.7877 -402.57986 -1352.48 4278190080
1895.4575 -404.1442 -1369.8735 4278190080
1887.0164 -404.1442 -1381.478 4278190080
1884.8503 -405.39569 -1397.7382 4278190080
1883.3452 -406.80359 -1414.6168 4278190080
1879.3456 -407.74219 -1429.7351 4278190080
1905.7406 -414.78177 -1468.3726 4278190080
1896.6949 -414.78177 -1480.0382 4278190080
1920.1207 -421.35199 -1517.3737 4278190080
1913.8584 -421.97775 -1531.5957 4278190080
1081.5078 -220.15012 877.13849 4278190080
1089.191 -220.54739 872.34418 4278190080
1089.8574 -219.75282 861.95673 4278190080
1095.9072 -219.88525 855.86316 4278190080
1097.9977 -219.35553 846.70245 4278190080
1098.4396 -218.56096 836.34796 4278190080
1103.5505 -218.56096 829.59229 4278190080
1111.0084 -218.95825 824.5769 4278190080
1117.6464 -219.2231 818.91559 4278190080
1123.4534 -219.35553 812.62311 4278190080
1130.0321 -219.62039 806.86597 4278190080
1135.772 -219.75282 800.48779 4278190080
1145.5453 -220.54739 796.89862 4278190080
1156.1344 -221.47441 793.78027 4278190080
1167.549 -222.53384 791.11768 4278190080
1179.7982 -223.72571 788.89539 4278190080
1191.2363 -224.78514 786.00677 4278190080
1202.6832 -225.84457 783.00726 4278190080
1224.1471 -228.49316 786.32239 4278190080
1241.5095 -230.4796 786.75146 4278190080
1214.3702 -225.44728 759.16162 4278190080
1211.411 -224.25542 747.01587 4278190080
1207.5018 -222.93112 734.42035 4278190080
1205.1843 -221.87169 722.92035 4278190080
1206.1844 -221.34198 713.49426 4278190080
1206.2579 -220.67982 703.58405 4278190080
1203.6774 -219.62039 692.21814 4278190080
1206.1772 -219.35553 683.84229 4278190080
1203.4275 -218.2961 672.56195 4278190080
1204.0583 -217.76639 663.25323 4278190080
1212.4615 -218.42853 658.21606 4278190080
1230.4634 -220.54739 658.24097 4278190080
1322.1765 -233.79034 696.87158 4278190080
1351.9415 -237.63078 701.98541 4278190080
3247.585 -521.42694 1660.4552 4278190080
3242.6616 -519.17566 1632.92 4278190080
3240.1873 -517.32166 1606.829 4278190080
3238.406 -515.6001 1581.2648 4278190080
3237.3269 -514.01093 1556.2125 4278190080
3238.7507 -512.81903 1532.5046 4278190080
3245.3972 -512.42175 1511.3483 4278190080
3252.8074 -512.15692 1490.5807 4278190080
3240.2046 -508.97861 1460.819 4278190080
3232.6677 -497.05997 1247.6375 4278190080
3224.5046 -494.80865 1221.8099 4278190080
3217.0757 -492.68979 1196.4752 4278190080
3227.1501 -493.08707 1177.7322 4278190080
3227.7832 -492.16006 1155.5707 4278190080
3227.3308 -491.10065 1133.1177 4278190080
3228.5991 -490.30606 1111.3588 4278190080
3230.6616 -489.64392 1089.9437 4278190080
3230.7004 -488.71692 1067.9235 4278190080
3229.6479 -487.65747 1045.6385 4278190080
3226.5542 -486.33319 1022.808 4278190080
4445.5044 -655.97522 1379.0983 4278190080
4453.8823 -655.97522 1351.7953 4278190080
4465.894 -656.50494 1325.5692 4278190080
4458.7124 -654.38605 1293.7239 4278190080
4454.1694 -652.66449 1262.8278 4278190080
4450.3706 -651.07532 1232.3007 4278190080
4442.5381 -648.95648 1200.8335 4278190080
4445.9893 -648.42676 1172.5413 4278190080
4447.3398 -647.6322 1143.7583 4278190080
4447.5439 -646.7052 1114.7621 4278190080
4444.6709 -645.38086 1085.1014 4278190080
4444.4951 -644.45386 1056.2054 4278190080
4447.0288 -643.92413 1028.022 4278190080
4460.9897 -644.98358 1002.4541 4278190080
2881.7712 -428.19669 629.17035 4278190080
2872.0017 -426.34268 608.60138 4278190080
2870.8274 -425.68051 589.9707 4278190080
2873.4211 -425.5481 572.15106 4278190080
2871.0381 -424.75351 553.38452 4278190080
2867.5583 -423.82651 534.4873 4278190080
2860.0532 -422.36978 514.95166 4278190080
2857.2996 -421.5752 496.37589 4278190080
2860.2913 -421.5752 478.83447 4278190080
2861.2185 -421.31036 460.95999 4278190080
2858.1157 -420.51578 442.48611 4278190080
2854.8943 -419.72119 424.06772 4278190080
2853.5171 -419.19147 405.9845 4278190080
2850.0615 -418.39691 387.66724 4278190080
2849.4377 -417.9996 369.79001 4278190080
2849.6855 -417.73477 352.05643 4278190080
2845.8853 -416.94019 333.87231 4278190080
2846.8953 -416.80774 316.29468 4278190080
2848.7825 -416.80774 298.8205 4278190080
2848.5894 -416.54291 281.14062 4278190080
2848.2869 -416.27805 263.4744 4278190080
2847.8748 -416.01318 245.82246 4278190080
2848.3416 -415.88074 228.26457 4278190080
2847.7114 -415.61588 210.63721 4278190080
2846.9724 -415.35104 193.02618 4278190080
2847.114 -415.2186 175.49301 4278190080
2845.1682 -414.82132 157.85582 4278190080
2843.1133 -414.42401 140.24913 4278190080
2840.9495 -414.02673 122.6736 4278190080
2840.6582 -413.89432 105.203 4278190080
2841.2502 -413.89432 87.771072 4278190080
2843.717 -414.15918 70.384621 4278190080
2844.0955 -414.15918 52.934574 4278190080
2844.3667 -414.15918 35.482536 4278190080
2842.5483 -413.89432 18.016869 4278190080
2845.5791 -414.2916 0.57517558 4278190080
2839.582 -413.49701 -16.848879 4278190080
2836.4517 -413.09973 -34.235611 4278190080
2832.2241 -412.57001 -51.566391 4278190080
2828.8818 -412.17273 -68.870842 4278190080
2827.4153 -412.04028 -86.196899 4278190080
2826.833 -412.04028 -103.54397 4278190080
2826.1445 -412.04028 -120.88714 4278190080
2827.3296 -412.30515 -138.32291 4278190080
2825.438 -412.17273 -155.61382 4278190080
2827.3979 -412.57001 -173.12961 4278190080
2828.2603 -412.83487 -190.60851 4278190080
2823.0835 -412.30515 -207.66739 4278190080
2819.78 -412.04028 -224.82776 4278190080
2818.3474 -412.04028 -242.12537 4278190080
2812.8606 -411.51059 -259.04971 4278190080
2812.2046 -411.64301 -276.40134 4278190080
2813.4131 -412.04028 -293.96091 4278190080
2816.4824 -412.70245 -311.7641 4278190080
2813.532 -412.57001 -328.92459 4278190080
2815.3958 -413.09973 -346.66699 4278190080
2814.1985 -413.23215 -364.06271 4278190080
2813.876 -413.49701 -381.59012 4278190080
2812.4631 -413.62946 -398.98792 4278190080
2810.9424 -413.76187 -416.38272 4278190080
2810.2937 -414.02673 -433.92526 4278190080
2809.5356 -414.2916 -451.47552 4278190080
2807.6902 -414.42401 -468.86942 4278190080
2806.7136 -414.68887 -486.42703 4278190080
2803.676 -414.68887 -503.63956 4278190080
2810.2776 -416.01318 -522.64673 4278190080
2799.2312 -414.95374 -538.38171 4278190080
6324.8145 -895.67242 -1257.257 4278190080
6312.126 -895.01025 -1295.0453 4278190080
6309.8794 -895.80487 -1334.9827 4278190080
6314.1592 -897.52643 -1376.4194 4278190080
6313.3315 -898.58588 -1416.8734 4278190080
6304.519 -898.58588 -1455.5846 4278190080
6296.4336 -898.71832 -1494.47 4278190080
6295.8115 -899.91016 -1535.1898 4278190080
6297.8115 -901.49933 -1576.6807 4278190080
6296.6587 -902.69116 -1617.5137 4278190080
6295.2417 -903.88306 -1658.3918 4278190080
6293.5596 -905.07489 -1699.3134 4278190080
6293.5225 -906.53162 -1740.8053 4278190080
6297.0278 -908.51807 -1783.4412 4278190080
6299.375 -911.96124 -1867.9089 4278190080
6294.4351 -912.88824 -1908.5397 4278190080
6290.1797 -913.94769 -1949.4735 4278190080
6285.6592 -915.00708 -1990.4269 4278190080
6287.4741 -916.99353 -2033.5337 4278190080
6289.937 -919.11243 -2077.0483 4278190080
6294.9199 -921.6286 -2121.6194 4278190080
6289.2817 -922.68799 -2162.7834 4278190080
6286.1812 -924.14471 -2204.9426 4278190080
6279.0664 -925.07172 -2245.8093 4278190080
6294.0356 -929.17706 -2294.8218 4278190080
6174.8477 -914.21252 -2294.3804 4278190080
6136.5522 -910.76935 -2323.0996 4278190080
6210.9629 -923.4826 -2394.949 4278190080
6059.6074 -903.88306 -2379.3884 4278190080
5978.6279 -894.34814 -2390.0295 4278190080
3133.4189 -486.06833 -1274.7773 4278190080
3127.3696 -486.33319 -1294.7382 4278190080
3133.9812 -488.45206 -1320.0608 4278190080
3137.666 -490.17365 -1344.3418 4278190080
3134.8101 -490.9682 -1365.9451 4278190080
3133.6194 -492.02765 -1388.3671 4278190080
3130.4636 -492.82224 -1410.0115 4278190080
3121.7529 -492.82224 -1429.1931 4278190080
3139.884 -496.7951 -1460.8677 4278190080
3129.6917 -505.13815 -1623.0962 4278190080
3126.6899 -506.1976 -1645.9636 4278190080
3123.5251 -507.25702 -1668.8551 4278190080
3124.5535 -508.97861 -1694.1324 4278190080
3129.7305 -511.36234 -1721.8743 4278190080
3135.5496 -513.87848 -1750.2263 4278190080
3131.6511 -514.93793 -1773.3407 4278190080
3058.8313 -505.40302 -1756.9703 4278190080
1078.5535 -185.82736 874.74377 4278190080
1076.9155 -184.85225 862.51831 4278190080
1082.1876 -184.85225 855.89423 4278190080
1087.4189 -184.85225 849.23798 4278190080
1088.6722 -184.31052 839.5155 4278190080
1095.3851 -184.52721 834.02368 4278190080
1101.2769 -184.63554 827.88397 4278190080
1106.3358 -184.63554 821.11108 4278190080
1112.9574 -184.85225 815.48193 4278190080
1118.7458 -184.96059 809.22003 4278190080
1125.3085 -185.17728 803.49518 4278190080
1133.4684 -185.61067 798.86517 4278190080
1139.9812 -185.82736 793.03027 4278190080
1149.7439 -186.47743 789.39526 4278190080
1160.3279 -187.23587 786.22766 4278190080
1174.2222 -188.42767 785.16907 4278190080
1188.9767 -189.72783 784.51666 4278190080
1199.6007 -190.48625 781.00165 4278190080
1213.5725 -191.67807 779.53387 4278190080
1229.2509 -193.08656 778.98761 4278190080
1220.5179 -191.35303 763.00256 4278190080
1209.9431 -189.40279 746.11121 4278190080
1205.1539 -188.21098 732.99316 4278190080
1198.5444 -186.80247 718.94 4278190080
1195.2313 -185.82736 707.01929 4278190080
1194.3939 -185.17728 696.6684 4278190080
1192.6127 -184.41885 685.85919 4278190080
1192.474 -183.87712 676.07825 4278190080
1188.7886 -182.90201 664.38605 4278190080
1191.9718 -182.79366 656.59985 4278190080
1193.3568 -182.46863 647.85156 4278190080
1196.4327 -182.36028 640.04834 4278190080
1200.3375 -182.36028 632.69513 4278190080
1207.7267 -182.79366 627.14966 4278190080
1178.8004 -178.78485 602.98627 4278190080
3253.1467 -431.44858 1638.1987 4278190080
3244.4333 -429.17331 1608.9341 4278190080
3247.0977 -428.30655 1585.5077 4278190080
3243.325 -426.68134 1559.095 4278190080
3243.8438 -425.59787 1534.9139 4278190080
3249.5959 -425.16449 1513.3029 4278190080
3256.1089 -424.83945 1492.0931 4278190080
3256.1396 -423.75598 1468.0011 4278190080
3248.7275 -421.80576 1440.7417 4278190080
2892.1506 -373.15823 1136.6973 4278190080
3245.2061 -412.70468 1229.6514 4278190080
3226.5996 -409.67096 1200.016 4278190080
3232.0342 -409.45428 1179.514 4278190080
3239.2107 -409.45428 1159.6604 4278190080
3237.8232 -408.47916 1136.8002 4278190080
3233.4573 -407.17902 1113.0304 4278190080
3234.574 -406.52893 1091.2632 4278190080
3235.5454 -405.87885 1069.5243 4278190080
3231.6431 -404.68704 1046.2842 4278190080
3234.2114 -404.25366 1025.2343 4278190080
4453.9014 -542.72034 1381.7025 4278190080
4467.0518 -543.26202 1355.791 4278190080
4468.6152 -542.5036 1326.3766 4278190080
4464.2578 -541.09509 1295.3325 4278190080
4474.0347 -541.31183 1268.4581 4278190080
4464.4878 -539.36157 1236.2084 4278190080
4460.4727 -538.0614 1205.6797 4278190080
4462.019 -537.41132 1176.7675 4278190080
4459.5278 -536.32788 1146.8916 4278190080
4454.9092 -535.02771 1116.6075 4278190080
4457.8135 -534.59436 1088.309 4278190080
4455.7026 -533.6192 1058.8679 4278190080
4456.3042 -532.96912 1030.1654 4278190080
4474.1807 -534.26929 1005.4171 4278190080
2855.3433 -353.00583 623.40405 4278190080
2863.9773 -353.54755 606.90204 4278190080
2867.6472 -353.54755 589.31763 4278190080
2869.2593 -353.33084 571.32294 4278190080
2870.7585 -353.11417 553.33069 4278190080
2873.1223 -353.00583 535.52362 4278190080
2869.5054 -352.24738 516.65222 4278190080
2865.7651 -351.48895 497.8454 4278190080
2863.8635 -350.94724 479.43198 4278190080
2860.8625 -350.29715 460.90271 4278190080
2855.7771 -349.43039 442.12439 4278190080
2853.5195 -348.88864 423.86371 4278190080
2853.114 -348.5636 405.92719 4278190080
2850.6257 -348.02188 387.7439 4278190080
2850.9795 -347.80518 369.98987 4278190080
2851.2227 -347.5885 352.24612 4278190080
2857.2798 -348.02188 335.20752 4278190080
2851.3784 -347.15512 316.79214 4278190080
2850.3025 -346.83008 298.97974 4278190080
2853.0725 -346.93842 281.58249 4278190080
2850.7871 -346.50504 263.70532 4278190080
2853.3418 -346.61337 246.29362 4278190080
2854.7993 -346.61337 228.7812 4278190080
2854.1665 -346.3967 211.11378 4278190080
2852.4326 -346.07166 193.39565 4278190080
2850.5889 -345.74661 175.70673 4278190080
2848.6357 -345.42157 158.04773 4278190080
2850.5447 -345.52991 140.6147 4278190080
2853.3401 -345.74661 123.20694 4278190080
2854.0425 -345.74661 105.69685 4278190080
2849.6692 -345.20486 88.029999 4278190080
2846.1804 -344.77148 70.445251 4278190080
2846.5591 -344.77148 52.980091 4278190080
2849.8125 -345.09653 35.549728 4278190080
2848.9829 -344.98819 18.056772 4278190080
2846.0579 -344.66315 0.57520688 4278190080
2845.0137 -344.55481 -16.881851 4278190080
2840.8804 -344.1214 -34.289673 4278190080
2841.6104 -344.22977 -51.738575 4278190080
2841.2395 -344.22977 -69.173393 4278190080
2839.7678 -344.1214 -86.57518 4278190080
2838.1897 -344.01306 -103.96152 4278190080
2830.5461 -343.25464 -121.07602 4278190080
2827.7642 -343.03793 -138.34422 4278190080
2827.8545 -343.1463 -155.74725 4278190080
2827.8379 -343.25464 -173.1566 4278190080
2828.7058 -343.47134 -190.6386 4278190080
2828.4744 -343.57968 -208.06468 4278190080
2825.1626 -343.36298 -225.25766 4278190080
2824.7178 -343.47134 -242.67352 4278190080
2822.1855 -343.36298 -259.90979 4278190080
2821.5271 -343.47134 -277.31888 4278190080
2817.7949 -343.25464 -294.41934 4278190080
2820.8755 -343.79639 -312.25101 4278190080
2820.8813 -344.01306 -329.78482 4278190080
2819.7913 -344.1214 -347.20886 4278190080
2816.6218 -344.01306 -364.37656 4278190080
2815.3181 -344.1214 -381.78589 4278190080
2814.8911 -344.3381 -399.3327 4278190080
2816.3213 -344.77148 -417.18024 4278190080
2816.6558 -345.09653 -434.90851 4278190080
2812.9529 -344.98819 -452.02515 4278190080
2811.1067 -345.09653 -469.44046 4278190080
2809.1528 -345.20486 -486.85013 4278190080
2808.0696 -345.42157 -504.42941 4278190080
2785.375 -343.25464 -518.01196 4278190080
2807.5251 -346.07166 -539.97809 4278190080
6637.9546 -772.0896 -1319.5231 4278190080
6624.8643 -771.54785 -1359.2286 4278190080
6625.1523 -772.52295 -1401.705 4278190080
6632.939 -774.36487 -1445.9302 4278190080
6630.7319 -775.12329 -1488.1262 4278190080
6629.2251 -775.99005 -1530.5731 4278190080
6628.4141 -776.96515 -1573.2872 4278190080
6626.3618 -777.83197 -1615.8132 4278190080
6626.9307 -779.02374 -1659.0978 4278190080
6627.2168 -780.21558 -1702.4501 4278190080
6620.4912 -780.64893 -1744.0951 4278190080
6625.9805 -782.49084 -1789.0911 4278190080
6624.4595 -783.57428 -1832.3645 4278190080
6617.874 -784.11603 -1874.3317 4278190080
6612.9321 -784.87445 -1916.8407 4278190080
6614.3892 -786.3913 -1961.3381 4278190080
6614.5977 -787.7998 -2005.6371 4278190080
6610.7124 -788.7749 -2048.8347 4278190080
6615.0752 -790.72516 -2094.7617 4278190080
6613.4478 -792.02533 -2138.9834 4278190080
6609.6387 -793.10876 -2182.6401 4278190080
6614.9624 -795.2757 -2229.5063 4278190080
6612.4385 -796.57587 -2273.9329 4278190080
6548.644 -790.8335 -2297.0212 4278190080
6460.481 -782.27417 -2310.707 4278190080
6339.7104 -769.92267 -2311.4778 4278190080
6241.5425 -760.17151 -2319.1665 4278190080
6229.9839 -760.49652 -2358.4763 4278190080
6221.8877 -761.25494 -2399.1624 4278190080
6199.647 -760.38818 -2434.3867 4278190080
3164.3269 -405.87885 -1264.7811 4278190080
3139.9326 -403.92862 -1277.4282 4278190080
3135.7092 -404.362 -1298.1919 4278190080
3132.2654 -404.90372 -1319.3378 4278190080
3129.5935 -405.5538 -1340.8818 4278190080
3139.5332 -407.72073 -1368.0037 4278190080
3136.5332 -408.37082 -1389.6586 4278190080
3128.8538 -408.47916 -1409.2861 4278190080
2941.1868 -387.02658 -1346.502 4278190080
3157.2898 -414.00482 -1468.9683 4278190080
3135.606 -418.23032 -1601.8254 4278190080
3143.3672 -420.39725 -1630.1903 4278190080
3139.4626 -421.15567 -1652.6892 4278190080
3140.6606 -422.56418 -1678.0128 4278190080
3136.4226 -423.3226 -1700.5696 4278190080
3069.3176 -416.28009 -1688.6285 4278190080
1623.7144 -237.83362 -919.23541 4278190080
1610.2856 -236.85851 -924.72394 4278190080
1599.4279 -236.20842 -931.58392 4278190080
1590.2583 -235.77504 -939.35718 4278190080
1577.6428 -234.90826 -945.00897 4278190080
1564.1687 -233.93315 -950.02521 4278190080
1553.2317 -233.28307 -956.47626 4278190080
1530.4703 -231.11615 -955.45605 4278190080
1505.261 -228.62418 -952.59766 4278190080
1468.458 -225.37379 -954.73596 4278190080
1452.6124 -224.07362 -957.16235 4278190080
1442.579 -223.53191 -963.29614 4278190080
1431.7019 -222.88182 -968.78564 4278190080
1422.4515 -222.44844 -975.3028 4278190080
1408.2773 -221.36497 -978.33875 4278190080
1067.1993 -150.7233 865.54041 4278190080
1067.0446 -150.13512 854.617 4278190080
1078.5222 -150.80733 852.99695 4278190080
1078.2372 -150.21915 842.07147 4278190080
1081.8052 -150.0511 834.22314 4278190080
1079.7666 -149.29486 822.13879 4278190080
1086.3843 -149.46292 816.69507 4278190080
1086.573 -148.95877 806.4519 4278190080
1094.7166 -149.29486 802.12451 4278190080
1103.6555 -149.715 798.31128 4278190080
1111.7776 -150.0511 793.8396 4278190080
1121.5155 -150.55525 790.44586 4278190080
1132.8898 -151.22746 788.10004 4278190080
1145.0989 -151.98369 786.20795 4278190080
1155.6769 -152.57187 783.07812 4278190080
1167.088 -153.24408 780.40155 4278190080
1182.6688 -154.33641 780.35712 4278190080
1193.2814 -154.92459 776.88983 4278190080
1198.8643 -155.00861 770.09167 4278190080
1218.7198 -156.52107 772.31799 4278190080
1226.8162 -156.85718 766.9375 4278190080
1227.2573 -156.43704 756.78149 4278190080
1190.1542 -152.31979 723.87573 4278190080
1186.0267 -151.47954 711.4361 4278190080
1183.5074 -150.80733 700.08868 4278190080
1179.172 -149.96707 687.79547 4278190080
1175.5945 -149.21085 676.07855 4278190080
1171.0509 -148.37059 663.94043 4278190080
1164.663 -147.36227 650.91187 4278190080
1154.668 -146.01787 636.06482 4278190080
1164.6802 -146.60605 632.29413 4278190080
1168.5378 -146.60605 625.13586 4278190080
1171.47 -146.52202 617.48969 4278190080
1177.0057 -146.69006 611.20801 4278190080
1187.832 -147.36227 607.60278 4278190080
1195.988 -147.78241 602.54333 4278190080
1206.8048 -148.45461 598.73444 4278190080
1216.7241 -149.04279 594.37823 4278190080
3259.1104 -339.7811 1566.681 4278190080
3036.2646 -318.10245 1436.7197 4278190080
2751.4304 -290.7941 1281.3782 4278190080
2651.4358 -280.79504 1215.0847 4278190080
2667.926 -281.63531 1202.8875 4278190080
2681.6333 -282.22348 1189.3218 4278190080
2703.4949 -283.5679 1179.2175 4278190080
2730.8281 -285.41647 1171.2455 4278190080
2755.4097 -287.01297 1161.8209 4278190080
2782.7395 -288.86151 1153.2828 4278190080
2810.0676 -290.71008 1144.4526 4278190080
2827.2141 -291.63437 1131.2596 4278190080
2881.4021 -295.91968 1132.4742 4278190080
2975.6855 -303.81808 1148.4893 4278190080
2921.1743 -298.2724 1106.913 4278190080
3017.5752 -306.33887 1122.304 4278190080
3069.3384 -310.3721 1120.1598 4278190080
3243.1519 -325.32867 1161.0709 4278190080
3226.7092 -323.22803 1132.8995 4278190080
3232.6577 -323.14401 1112.7552 4278190080
3232.8149 -322.55582 1090.67 4278190080
3231.8772 -321.88361 1068.3123 4278190080
3235.5271 -321.63153 1047.5413 4278190080
3234.2947 -320.95932 1025.2607 4278190080
4472.0815 -429.68857 1387.3407 4278190080
4470.9746 -428.8483 1356.9812 4278190080
4430.4966 -424.56299 1315.0657 4278190080
3863.3157 -374.06357 1121.0199 4278190080
3898.8823 -376.58432 1105.4456 4278190080
3919.9971 -377.84473 1085.4891 4278190080
3938.1274 -378.85303 1064.5353 4278190080
4157.5273 -397.4227 1096.4913 4278190080
4457.5615 -422.96649 1146.3862 4278190080
4458.7124 -422.46234 1117.5604 4278190080
4460.6455 -422.04224 1089 4278190080
4454.6401 -420.94989 1058.6155 4278190080
4454.2559 -420.36169 1029.692 4278190080
4438.1284 -418.42911 997.31879 4278190080
2854.3423 -281.21518 623.18567 4278190080
2860.062 -281.38324 606.07294 4278190080
2860.7988 -281.13116 587.91113 4278190080
2862.3977 -280.9631 569.95764 4278190080
2861.927 -280.62701 551.6297 4278190080
2864.2783 -280.54297 533.8764 4278190080
2860.6353 -279.9548 515.05634 4278190080
2860.7964 -279.70273 496.98288 4278190080
2852.981 -278.77844 477.61166 4278190080
2853.8901 -278.61038 459.7804 4278190080
2853.7034 -278.35831 441.80362 4278190080
2854.3892 -278.19025 423.99277 4278190080
2853.9773 -277.93817 406.0499 4278190080
2853.4529 -277.6861 388.12808 4278190080
2852.8162 -277.43402 370.228 4278190080
2854.0452 -277.35001 352.59442 4278190080
2853.1858 -277.09793 334.72778 4278190080
2852.2148 -276.84586 316.88498 4278190080
2852.1235 -276.6778 299.1705 4278190080
2848.9473 -276.25766 281.1759 4278190080
2852.6033 -276.42572 263.87308 4278190080
2849.2048 -276.00558 245.93709 4278190080
2847.6802 -275.75351 228.21167 4278190080
2846.0457 -275.50143 210.51422 4278190080
2845.2954 -275.33337 192.9127 4278190080
2845.4309 -275.24936 175.38951 4278190080
2845.4585 -275.16534 157.8719 4278190080
2844.3833 -274.99728 140.3116 4278190080
2844.1951 -274.91327 122.8133 4278190080
2843.8994 -274.82922 105.32259 4278190080
2840.5081 -274.49313 87.748253 4278190080
2837.0083 -274.15701 70.21949 4278190080
2836.3894 -274.073 52.792206 4278190080
2838.6528 -274.24106 35.412041 4278190080
2841.8059 -274.49313 18.012264 4278190080
2843.856 -274.66119 0.57506281 4278190080
2843.8059 -274.66119 -16.874519 4278190080
2842.6526 -274.57715 -34.311306 4278190080
2841.3921 -274.49313 -51.73457 4278190080
2839.0288 -274.32507 -69.11927 4278190080
2834.5674 -273.98898 -86.415916 4278190080
2833.9836 -273.98898 -103.80687 4278190080
2831.3022 -273.82092 -121.10847 4278190080
2827.5203 -273.56885 -138.33224 4278190080
2822.6384 -273.23276 -155.45924 4278190080
2822.626 -273.31677 -172.83675 4278190080
2820.5181 -273.23276 -190.08565 4278190080
2821.2861 -273.40079 -207.53493 4278190080
2822.9395 -273.65286 -225.08011 4278190080
2824.4836 -273.90494 -242.6534 4278190080
2823.9338 -273.98898 -260.07104 4278190080
2823.2766 -274.073 -277.49109 4278190080
2822.512 -274.15701 -294.91287 4278190080
2822.6301 -274.32507 -312.44547 4278190080
2821.6494 -274.40909 -329.87476 4278190080
2820.5613 -274.49313 -347.30377 4278190080
2819.3655 -274.57715 -364.73184 4278190080
2818.0618 -274.66119 -382.15833 4278190080
2815.6638 -274.66119 -399.44241 4278190080
2814.1455 -274.74521 -416.85764 4278190080
2812.5195 -274.82922 -434.26926 4278190080
2808.8181 -274.74521 -451.36014 4278190080
2803.0474 -274.49313 -468.09344 4278190080
2798.1587 -274.32507 -484.94321 4278190080
2794.1499 -274.24106 -501.92694 4278190080
2773.3838 -272.72858 -515.78015 4278190080
2760.3818 -271.88834 -530.90424 4278190080
6500.2446 -593.70667 -1292.1403 4278190080
6457.0532 -590.68176 -1324.7888 4278190080
6439.0542 -589.84149 -1362.3204 4278190080
6427.6533 -589.58942 -1401.1672 4278190080
6431.5747 -590.68176 -1443.4176 4278190080
6411.917 -589.75751 -1480.3873 4278190080
6406.5908 -590.09357 -1520.6229 4278190080
6415.5332 -591.69006 -1564.3907 4278190080
6383.5815 -589.75751 -1598.1589 4278190080
6374.6201 -589.84149 -1637.5458 4278190080
6552.3491 -606.2265 -1726.1396 4278190080
6554.1406 -607.31885 -1769.6891 4278190080
6553.7227 -608.2431 -1812.7941 4278190080
6551.105 -608.99939 -1855.4171 4278190080
6543.1279 -610.34375 -1940.203 4278190080
6548.2642 -611.85626 -1985.5199 4278190080
6535.958 -611.85626 -2025.6619 4278190080
6531.0054 -612.52844 -2068.1345 4278190080
6534.3105 -613.95685 -2113.3831 4278190080
6536.3589 -615.30127 -2158.4373 4278190080
6607.9751 -622.86359 -2227.1509 4278190080
6592.3003 -622.69556 -2267.0066 4278190080
6557.5801 -620.84698 -2300.1562 4278190080
6441.0752 -611.68817 -2303.7651 4278190080
6336.9473 -603.6217 -2310.4702 4278190080
6236.7188 -595.89136 -2317.3738 4278190080
6233.5649 -596.89966 -2359.8323 4278190080
3211.3342 -325.0766 -1238.09 4278190080
6100.2568 -587.48877 -2395.353 4278190080
3171.8428 -322.89191 -1267.7863 4278190080
3144.6218 -321.12738 -1279.3365 4278190080
3138.554 -321.29544 -1299.37 4278190080
3134.1953 -321.63153 -1320.151 4278190080
3131.5312 -322.13568 -1341.7125 4278190080
3128.7207 -322.63983 -1363.2908 4278190080
3128.4956 -323.39609 -1386.0963 4278190080
3127.2 -324.06827 -1408.541 4278190080
2913.7471 -305.07849 -1333.9358 4278190080
3146.7197 -327.51334 -1464.049 4278190080
3139.4788 -327.6814 -1484.1813 4278190080
3134.804 -328.1015 -1505.5743 4278190080
3137.1487 -329.19385 -1530.4618 4278190080
3138.4128 -330.20215 -1554.9921 4278190080
3132.3728 -330.53827 -1576.0116 4278190080
3130.6296 -331.29449 -1599.2826 4278190080
3135.7947 -332.72293 -1626.2622 4278190080
3134.574 -333.56317 -1650.1151 4278190080
3127.0266 -333.81525 -1670.7264 4278190080
3134.2351 -335.49576 -1699.3832 4278190080
3128.114 -335.91589 -1720.9846 4278190080
1673.2302 -196.43327 -933.76935 4278190080
1668.3363 -196.5173 -944.50964 4278190080
1624.4929 -192.82018 -932.88654 4278190080
1613.5726 -192.31601 -939.82648 4278190080
1602.6284 -191.81186 -946.66766 4278190080
1586.5328 -190.80356 -950.33661 4278190080
1573.0077 -190.04732 -955.39636 4278190080
1555.2385 -188.87096 -957.71265 4278190080
1536.6555 -187.61058 -959.31927 4278190080
1520.6376 -186.60226 -962.33331 4278190080
1501.2864 -185.25786 -963.03436 4278190080
1486.9961 -184.4176 -966.79456 4278190080
1471.8845 -183.49332 -969.86737 4278190080
1453.4773 -182.23293 -970.57715 4278190080
1440.8934 -181.56073 -975.00824 4278190080
1429.1317 -180.97255 -979.88531 4278190080
1418.183 -180.4684 -985.22357 4278190080
1408.0374 -180.04826 -991.03827 4278190080
1075.1903 -118.15581 883.32465 4278190080
1075.1626 -117.73944 872.30981 4278190080
1071.1443 -117.02567 858.20905 4278190080
1059.9465 -115.77658 838.61835 4278190080
1057.9911 -115.24126 826.56989 4278190080
1055.9279 -114.70593 814.57715 4278190080
1065.6719 -115.06281 811.71057 4278190080
1071.4303 -115.12229 805.75616 4278190080
1081.9657 -115.53866 803.33069 4278190080
1087.6797 -115.59814 797.26666 4278190080
1097.4044 -115.95502 794.08752 4278190080
1101.4437 -115.89554 786.75903 4278190080
1108.6985 -116.07398 781.71088 4278190080
1119.2107 -116.49035 778.88306 4278190080
1128.9067 -116.84723 775.39062 4278190080
1138.6018 -117.20412 771.80841 4278190080
1150.7849 -117.73944 769.8006 4278190080
1164.6525 -118.39372 768.77155 4278190080
1176.8771 -118.92905 766.51196 4278190080
1189.1176 -119.46438 764.1311 4278190080
1199.6864 -119.88074 760.56018 4278190080
1213.642 -120.53503 759.00446 4278190080
1219.126 -120.59451 752.06726 4278190080
1204.1005 -119.22646 732.64398 4278190080
1179.4663 -117.20412 707.78644 4278190080
1178.6317 -116.84723 697.48718 4278190080
1169.092 -115.89554 682.19647 4278190080
1161.1404 -115.06281 668.04449 4278190080
1144.3754 -113.63528 649.09363 4278190080
1150.9508 -113.81372 643.52039 4278190080
1141.7617 -112.92151 629.22308 4278190080
1148.233 -113.09995 623.63397 4278190080
1146.7565 -112.74307 613.7522 4278190080
1149.6177 -112.68359 606.23889 4278190080
1155.9738 -112.86203 600.55341 4278190080
1159.637 -112.86203 593.44916 4278190080
1167.7141 -113.15943 588.56775 4278190080
1167.7264 -112.92151 579.61749 4278190080
1182.0247 -113.63528 577.69818 4278190080
1200.8411 -114.64645 577.78778 4278190080
1169.1746 -112.32671 553.75513 4278190080
2626.7078 -207.91203 1223.8735 4278190080
2660.4841 -209.63696 1219.7947 4278190080
2676.1084 -210.17229 1207.1403 4278190080
2699.8899 -211.24294 1197.9827 4278190080
2727.3188 -212.55151 1190.1749 4278190080
2750.166 -213.56268 1180.1077 4278190080
2780.3499 -215.0497 1172.9077 4278190080
2802.2488 -216.00139 1161.9414 4278190080
2829.6641 -217.30997 1153.0096 4278190080
2861.7085 -218.91594 1145.6393 4278190080
2869.613 -218.97542 1128.4237 4278190080
2942.6021 -223.19855 1136.3181 4278190080
2973.7886 -224.74504 1127.439 4278190080
3033.9792 -228.13544 1129.0084 4278190080
3182.4446 -237.117 1162.0552 4278190080
3228.0464 -239.55571 1156.3035 4278190080
3227.5459 -239.07986 1133.8289 4278190080
3225.9475 -238.54454 1111.079 4278190080
3222.3 -237.89024 1087.7532 4278190080
3217.5405 -237.17648 1064.2008 4278190080
3220.2109 -236.93855 1043.2083 4278190080
3245.5823 -238.12817 1029.4637 4278190080
3735.2012 -268.28482 1159.5284 4278190080
3768.9905 -269.95029 1144.7079 4278190080
3794.125 -271.08041 1126.9587 4278190080
3817.2659 -272.09158 1108.3876 4278190080
3828.7966 -272.38901 1086.3063 4278190080
3894.0725 -276.0173 1079.0476 4278190080
3991.5811 -280.83524 1027.3339 4278190080
3985.2222 -280.06198 999.66644 4278190080
4448.9922 -308.13684 1086.9817 4278190080
4459.4624 -308.37476 1060.5862 4278190080
4463.9409 -308.2558 1032.7537 4278190080
4459.481 -307.6015 1002.9356 4278190080
2850.5415 -209.10164 622.88043 4278190080
2860.1689 -209.45853 606.62 4278190080
2862.8594 -209.39905 588.85791 4278190080
2861.5237 -209.10164 570.30573 4278190080
2860.0681 -208.80423 551.79218 4278190080
2859.4749 -208.56631 533.50098 4278190080
2858.7649 -208.32838 515.23779 4278190080
2855.9714 -207.97151 496.66168 4278190080
2850.1045 -207.43619 477.64468 4278190080
2843.1265 -206.84137 458.55966 4278190080
2840.9541 -206.54398 440.3421 4278190080
2842.6152 -206.4845 422.75534 4278190080
2844.1675 -206.42502 405.16476 4278190080
2841.6543 -206.12761 387.03278 4278190080
2841.9958 -206.00865 369.3324 4278190080
2842.2271 -205.88968 351.64243 4278190080
2841.3569 -205.71124 333.84717 4278190080
2840.3755 -205.53281 316.07587 4278190080
2834.3193 -205.05696 297.80829 4278190080
2829.1394 -204.64059 279.72507 4278190080
2827.8206 -204.46216 262.08456 4278190080
2832.3591 -204.64059 244.9861 4278190080
2835.7991 -204.75955 227.76202 4278190080
2839.1343 -204.87851 210.50494 4278190080
2844.3562 -205.11644 193.35063 4278190080
2844.4927 -205.05696 175.8329 4278190080
2833.5576 -204.34319 157.71207 4278190080
2827.4929 -203.92683 139.97818 4278190080
2824.3093 -203.6889 122.45397 4278190080
2818.0247 -203.27254 104.86316 4278190080
2820.6106 -203.39149 87.631828 4278190080
2821.0952 -203.39149 70.323235 4278190080
2822.4717 -203.45099 53.030613 4278190080
2827.7346 -203.74838 35.773701 4278190080
2830.8955 -203.92683 18.441467 4278190080
2831.9536 -203.98631 1.0713108 4278190080
2830.9087 -203.92683 -16.299364 4278190080
2830.7554 -203.92683 -33.669189 4278190080
2827.5015 -203.74838 -50.983337 4278190080
2818.1538 -203.21306 -68.113274 4278190080
2814.6897 -203.03462 -85.312721 4278190080
2813.1155 -202.97514 -102.54522 4278190080
2816.4226 -203.21306 -119.97473 4278190080
2814.6365 -203.15358 -137.20499 4278190080
2817.7285 -203.39149 -154.69211 4278190080
2810.748 -203.03462 -171.61263 4278190080
2806.6543 -202.85617 -188.65456 4278190080
2802.4573 -202.67773 -205.65273 4278190080
2805.123 -202.91565 -223.16162 4278190080
2803.7009 -202.91565 -240.36934 4278190080
2807.1433 -203.21306 -258.02554 4278190080
2808.4875 -203.39149 -275.53781 4278190080
2811.7083 -203.6889 -293.28366 4278190080
2808.8635 -203.62943 -310.42065 4278190080
2802.9399 -203.39149 -327.18619 4278190080
2800.8796 -203.39149 -344.37854 4278190080
2801.6838 -203.56995 -361.94205 4278190080
2799.4102 -203.56995 -379.12604 4278190080
2798.0195 -203.62943 -396.43591 4278190080
2797.5095 -203.74838 -413.88925 4278190080
2797.8767 -203.92683 -431.50354 4278190080
2798.1333 -204.10527 -449.13788 4278190080
2795.3247 -204.10527 -466.29843 4278190080
2794.3782 -204.22423 -483.78232 4278190080
2787.427 -203.98631 -500.21335 4278190080
2771.5469 -203.21306 -514.93506 4278190080
2759.5127 -202.67773 -530.23474 4278190080
6430.7524 -425.90842 -1277.1526 4278190080
6449.1982 -427.5144 -1322.0009 4278190080
6439.9883 -427.45493 -1361.3409 4278190080
6431.5142 -427.45493 -1400.8303 4278190080
6446.1743 -428.88245 -1445.5105 4278190080
5158.125 -350.66547 -1189.882 4278190080
5157.5259 -351.08182 -1223.1221 4278190080
5153.8032 -351.31976 -1255.6906 4278190080
5146.9697 -351.37924 -1287.5323 4278190080
5141.873 -351.55768 -1319.8341 4278190080
5134.9272 -352.15247 -1385.4344 4278190080
6175.251 -419.72244 -1871.2145 4278190080
6137.9082 -418.11646 -1901.0941 4278190080
6106.1426 -416.86737 -1932.3938 4278190080
6073.2744 -415.55881 -1963.0682 4278190080
6042.1562 -414.36917 -1994.0382 4278190080
6011.834 -413.23904 -2025.0192 4278190080
5987.0229 -412.46579 -2057.6504 4278190080
5969.5752 -412.1684 -2092.6958 4278190080
6449.1597 -443.33624 -2305.3848 4278190080
6312.0308 -435.54428 -2300.1331 4278190080
6233.231 -431.44012 -2314.8367 4278190080
6251.5864 -433.52194 -2365.4055 4278190080
3184.6685 -238.60402 -1227.1646 4278190080
3139.9106 -236.22479 -1232.0924 4278190080
3162.8809 -238.18765 -1263.5598 4278190080
3133.801 -236.8196 -1274.2924 4278190080
3130.5349 -237.117 -1295.406 4278190080
3128.0474 -237.47388 -1316.9148 4278190080
3125.4136 -237.83076 -1338.4418 4278190080
3121.7178 -238.12817 -1359.5873 4278190080
3116.9675 -238.36609 -1380.3334 4278190080
3113.9004 -238.72298 -1401.8922 4278190080
2915.5396 -226.29153 -1334.1382 4278190080
2903.6782 -226.0536 -1350.3182 4278190080
2819.5288 -221.05724 -1332.2766 4278190080
2781.6057 -219.09438 -1335.2922 4278190080
2743.7529 -217.13152 -1337.8931 4278190080
2705.0796 -215.10918 -1339.6371 4278190080
2667.3811 -213.14632 -1341.4061 4278190080
2642.2095 -212.01619 -1349.1204 4278190080
2624.1338 -211.36191 -1360.2527 4278190080
2534.4705 -205.88968 -1333.5541 4278190080
2970.8789 -235.92738 -1586.6073 4278190080
2875.0859 -230.0983 -1558.1835 4278190080
1815.035 -158.66209 -997.96997 4278190080
1821.0808 -159.49483 -1015.8987 4278190080
1731.4213 -153.78468 -979.83911 4278190080
1638.8135 -147.83662 -940.73071 4278190080
1620.0719 -146.94441 -943.23199 4278190080
1609.9565 -146.647 -950.61615 4278190080
1596.3864 -146.11168 -955.85992 4278190080
1580.2532 -145.39792 -959.41833 4278190080
1561.587 -144.50571 -961.24469 4278190080
1541.2648 -143.49454 -961.82104 4278190080
1529.4298 -143.07817 -967.52307 4278190080
1512.5419 -142.30493 -969.88208 4278190080
1499.8673 -141.82909 -974.79132 4278190080
1482.1887 -140.99635 -976.28601 4278190080
1457.9075 -139.68777 -973.16565 4278190080
1451.9088 -139.68777 -982.0929 4278190080
1436.7996 -139.03349 -984.77325 4278190080
1427.4509 -138.79558 -991.29248 4278190080
1416.444 -138.43869 -996.58496 4278190080
1125.4282 -86.979706 923.90918 4278190080
1117.0995 -86.345238 905.66132 4278190080
1092.9833 -85.005798 875.06323 4278190080
1090.4906 -84.653313 862.14447 4278190080
1084.7292 -84.159836 846.83044 4278190080
1077.2379 -83.595863 830.40002 4278190080
1069.5864 -83.031891 814.09381 4278190080
1076.1597 -83.102386 808.71594 4278190080
1080.2988 -83.067139 801.50232 4278190080
1086.8092 -83.137634 796.03925 4278190080
1092.4832 -83.172882 789.94104 4278190080
1100.564 -83.313881 785.54431 4278190080
1110.2661 -83.525368 782.22876 4278190080
1117.5068 -83.631111 777.11255 4278190080
1121.4299 -83.595863 769.67578 4278190080
1136.0626 -84.018845 769.50299 4278190080
1146.5798 -84.265587 766.40369 4278190080
1158.7705 -84.582817 764.3042 4278190080
1171.8159 -84.935303 762.62866 4278190080
1186.5664 -85.358284 761.90112 4278190080
1200.5072 -85.746017 760.48645 4278190080
1212.7798 -86.063248 757.87036 4278190080
1221.6616 -86.239494 753.03552 4278190080
1228.8214 -86.345238 747.08215 4278190080
1177.6609 -84.054092 706.13837 4278190080
1184.5526 -84.159836 700.42432 4278190080
1175.8757 -83.631111 685.59589 4278190080
1177.4607 -83.525368 676.87451 4278190080
1185.0701 -83.666359 671.60699 4278190080
1264.2128 -86.697723 706.21796 4278190080
1276.4025 -87.014954 702.78369 4278190080
1283.3262 -87.120697 696.36786 4278190080
1287.5748 -87.120697 688.48041 4278190080
1289.1222 -87.014954 679.17023 4278190080
1290.6038 -86.90921 669.86707 4278190080
1267.9913 -85.851761 648.29437 4278190080
1264.8036 -85.569771 636.90802 4278190080
1255.256 -85.041046 622.47913 4278190080
1257.2554 -84.970551 613.88879 4278190080
1257.3951 -84.829559 604.43195 4278190080
1254.7559 -84.582817 593.71503 4278190080
1236.6294 -83.736862 575.8855 4278190080
2695.7944 -140.20471 1234.8336 4278190080
2707.8765 -140.38095 1220.3218 4278190080
2732.6731 -141.05067 1211.3765 4278190080
2758.3777 -141.75565 1202.5718 4278190080
2781.3206 -142.35486 1192.316 4278190080
2806.0828 -143.02458 1182.5999 4278190080
2835.4465 -143.87054 1174.536 4278190080
2865.7419 -144.75175 1166.5327 4278190080
2901.6128 -145.84445 1160.4275 4278190080
2932.8643 -146.76091 1152.0991 4278190080
2972.5142 -147.9946 1146.6666 4278190080
3009.4023 -149.12254 1139.729 4278190080
3139.0591 -153.74008 1166.8433 4278190080
3231.6006 -156.94768 1178.7139 4278190080
3236.8904 -156.87718 1158.1897 4278190080
3226.9612 -156.24271 1132.3524 4278190080
3220.6177 -155.74924 1107.9807 4278190080
3220.7261 -155.5025 1085.9641 4278190080
3222.584 -155.32625 1064.6147 4278190080
3226.2031 -155.2205 1043.8987 4278190080
3222.0674 -154.83278 1020.7645 4278190080
3741.834 -173.79639 1160.1493 4278190080
3780.4426 -174.95958 1146.7379 4278190080
3748.124 -173.5144 1111.8708 4278190080
3768.3137 -174.00787 1092.7472 4278190080
3842.2566 -176.47527 1088.6689 4278190080
3925.9207 -179.29514 1086.3882 4278190080
3938.3018 -179.50662 1063.8419 4278190080
3931.2256 -179.01314 1036.0925 4278190080
4009.137 -181.62152 1030.3529 4278190080
4048.3452 -182.81996 1013.9865 4278190080
4042.8396 -182.39699 986.28595 4278190080
4010.8931 -181.02229 952.45947 4278190080
4021.5305 -181.19855 928.95532 4278190080
2857.9863 -138.93578 641.85059 4278190080
2852.1064 -138.58328 622.17352 4278190080
2848.0483 -138.3013 603.00659 4278190080
2849.7368 -138.2308 585.11823 4278190080
2852.2932 -138.19556 567.4267 4278190080
2855.7212 -138.19556 549.91467 4278190080
2856.094 -138.08981 531.8335 4278190080
2856.3528 -137.98407 513.76843 4278190080
2853.5432 -137.77258 495.20801 4278190080
2850.6138 -137.56108 476.70148 4278190080
2847.5649 -137.34959 458.24954 4278190080
2844.397 -137.13811 439.85303 4278190080
2841.1108 -136.92662 421.51266 4278190080
2838.6965 -136.75038 403.36969 4278190080
2835.1763 -136.53888 385.13785 4278190080
2835.5039 -136.46838 367.47766 4278190080
2833.7378 -136.32739 349.5835 4278190080
2834.8369 -136.29214 332.0733 4278190080
2837.8145 -136.32739 314.78287 4278190080
2841.6804 -136.39789 297.57233 4278190080
2843.4526 -136.39789 280.13052 4278190080
2841.1375 -136.2569 262.31116 4278190080
2840.7019 -136.1864 244.70206 4278190080
2841.1538 -136.15115 227.18771 4278190080
2839.5042 -136.04541 209.53021 4278190080
2834.7539 -135.83392 191.69965 4278190080
2828.894 -135.58717 173.8741 4278190080
2821.9248 -135.30519 156.07263 4278190080
2817.8386 -135.12895 138.51006 4278190080
2815.6399 -135.02321 121.0891 4278190080
2818.3274 -135.0937 103.88373 4278190080
2811.9194 -134.84697 86.375015 4278190080
2812.3965 -134.84697 69.119774 4278190080
2819.762 -135.0937 51.989941 4278190080
2820.0281 -135.0937 34.687229 4278190080
2817.1897 -134.98796 17.365139 4278190080
2815.2444 -134.91747 0.079079486 4278190080
2815.1919 -134.91747 -17.194937 4278190080
2818.0312 -135.02321 -34.505424 4278190080
2820.7642 -135.12895 -51.851402 4278190080
2823.3901 -135.2347 -69.232216 4278190080
2825.9089 -135.34044 -86.647202 4278190080
2824.3254 -135.30519 -103.94813 4278190080
2823.6343 -135.30519 -121.27591 4278190080
2820.8408 -135.2347 -138.50082 4278190080
2818.9399 -135.19945 -155.7513 4278190080
2815.9363 -135.12895 -172.92227 4278190080
2816.8164 -135.19945 -190.33231 4278190080
2826.5588 -135.58717 -208.42229 4278190080
2827.219 -135.65767 -225.92128 4278190080
2816.8186 -135.34044 -242.49185 4278190080
2812.2922 -135.2347 -259.49509 4278190080
2807.6633 -135.12895 -276.4519 4278190080
2804.9202 -135.0937 -293.57004 4278190080
2804.0593 -135.12895 -310.88544 4278190080
2804.0842 -135.19945 -328.31766 4278190080
2805.9844 -135.34044 -346.00681 4278190080
2805.7905 -135.41093 -363.47452 4278190080
2803.5076 -135.41093 -380.68369 4278190080
2802.1084 -135.44618 -398.0192 4278190080
2799.6135 -135.44618 -415.20514 4278190080
2798.0007 -135.48143 -432.52823 4278190080
2788.3875 -135.2347 -448.57623 4278190080
2782.6255 -135.12895 -465.18225 4278190080
2780.7034 -135.1642 -482.41833 4278190080
2782.6089 -135.34044 -500.35632 4278190080
2778.5039 -135.30519 -517.23767 4278190080
2780.1846 -135.48143 -535.2218 4278190080
6459.2886 -267.90948 -1285.1711 4278190080
6446.3867 -267.73325 -1323.775 4278190080
6432.2769 -267.52176 -1362.0618 4278190080
5170.1035 -222.26286 -1127.9036 4278190080
5155.2852 -221.98088 -1157.8529 4278190080
5152.9521 -222.15712 -1190.5885 4278190080
5154.3003 -222.47435 -1224.2633 4278190080
5173.876 -223.4613 -1262.502 4278190080
